ply
format ascii 1.0
element vertex 1283
property float x
property float y
property float z
property uchar red
property uchar green
property uchar blue
end_header
25.1774 136.35 -68.316 255 255 255
26.1691 105.583 -68.9143 255 255 255
24.7193 124.29 -62.4804 255 255 255
36.8422 43.3338 -93.1332 255 255 255
32.2717 104.921 -80.4889 255 255 255
27.7825 127.887 -65.3148 255 255 255
27.7825 127.887 -65.3148 255 255 255
26.919 117.008 -59.6882 255 255 255
-0.11862 -34.4344 40.3777 255 255 255
2.7439 -43.0775 33.7129 255 255 255
0.411203 -12.2705 40.0115 255 255 255
43.8204 98.4705 -88.5608 255 255 255
-0.0558387 -30.144 43.6812 255 255 255
42.8086 106.007 -81.2989 255 255 255
42.8086 106.007 -81.2989 255 255 255
41.166 114.159 -74.4628 255 255 255
59.9704 69.8327 -119.407 255 255 255
-90.2484 7.23724 102.13 255 255 255
-196.956 127.203 -204.802 255 255 255
-179.163 140.668 -158.424 255 255 255
-153.735 116.089 -109.367 255 255 255
-142.522 131.614 -84.0832 255 255 255
-147.775 141.168 -94.6653 255 255 255
-145.405 143.384 -95.2094 255 255 255
-128.012 103.823 -63.5071 255 255 255
-143.316 141.258 -94.4156 255 255 255
-165.622 187.138 -143.809 255 255 255
-118.145 79.409 -61.9347 255 255 255
-101.093 68.0351 -28.9708 255 255 255
-79.4074 -15.2825 -18.819 255 255 255
-93.6406 54.3337 -28.4266 255 255 255
-92.1935 71.7008 -10.3033 255 255 255
-118.126 140.133 -71.5679 255 255 255
-88.4189 68.4416 -15.8162 255 255 255
-87.1885 50.9347 -31.2582 255 255 255
-86.8891 45.2755 -34.9871 255 255 255
-107.43 136.261 -66.6529 255 255 255
-107.14 142.37 -65.7672 255 255 255
-85.1799 62.7056 -20.7738 255 255 255
-85.5323 63.3312 -22.6707 255 255 255
-84.765 46.1928 -36.8643 255 255 255
-84.78 71.1399 -14.1015 255 255 255
-104.88 140.046 -67.3687 255 255 255
-83.6215 38.2452 -43.9782 255 255 255
-83.4836 42.7204 -39.1232 255 255 255
-89.4902 95.0622 -24.1671 255 255 255
-82.3884 30.9581 -50.7708 255 255 255
-81.8527 72.2675 -15.6973 255 255 255
-80.7038 59.6986 -28.3811 255 255 255
-83.768 103.274 -26.3449 255 255 255
-75.6345 40.6537 -47.1998 255 255 255
-82.9899 107.952 -29.3356 255 255 255
-71.7026 74.5541 -21.8046 255 255 255
-69.0501 77.471 -20.4755 255 255 255
-43.2684 -53.1063 29.9322 255 255 255
-95.6701 233.645 -157.954 255 255 255
-64.0687 68.9123 -33.168 255 255 255
-64.0476 68.6488 -32.6067 255 255 255
-52.9649 -4.20747 -31.8896 255 255 255
-42.512 -49.4364 26.4041 255 255 255
-51.2955 -3.58946 -31.1289 255 255 255
-60.8757 75.3401 -30.1703 255 255 255
-55.3184 31.796 -66.7195 255 255 255
-45.6798 -14.5462 -17.8356 255 255 255
-57.8666 81.3077 -25.6906 255 255 255
-36.845 -63.1582 44.9079 255 255 255
-46.2576 -9.18948 -25.3091 255 255 255
-37.7295 -52.6288 31.0726 255 255 255
-54.9416 82.0569 -26.7056 255 255 255
-36.5567 -55.1998 34.0202 255 255 255
-35.2646 -61.1919 41.8133 255 255 255
-35.2708 -61.1416 41.9302 255 255 255
-53.0743 81.99 -28.8188 255 255 255
-44.3914 17.4839 -58.2488 255 255 255
-48.2145 71.361 -44.4456 255 255 255
-31.5997 -63.5698 45.5853 255 255 255
-46.2476 102.831 -29.806 255 255 255
-41.4043 86.4372 -34.6878 255 255 255
-29.5267 -57.2294 36.9356 255 255 255
-42.08 268.392 -194.853 255 255 255
-25.8451 -66.291 47.5102 255 255 255
-25.6329 -56.7507 36.1541 255 255 255
-25.415 -2.07396 8.39582 255 255 255
-23.293 72.5211 -59.3686 255 255 255
-25.4142 91.4504 -41.8289 255 255 255
-22.888 -2.71604 15.211 255 255 255
-21.0604 -58.7297 38.4842 255 255 255
-21.4854 -66.6281 49.0672 255 255 255
-14.8084 18.7972 -60.1456 255 255 255
-21.2668 1.42782 4.42891 255 255 255
-19.3201 -63.0967 44.3299 255 255 255
-18.6504 -59.8175 40.0827 255 255 255
-18.9194 -27.8827 40.4063 255 255 255
-5.80554 68.2516 -74.3974 255 255 255
-5.80554 68.2516 -74.3974 255 255 255
-4.54376 76.9975 -68.5503 255 255 255
5.96997 258.569 -185.229 255 255 255
-9.68595 114.199 -47.6389 255 255 255
-6.94765 102.717 -46.3888 255 255 255
-15.5726 -20.2014 37.4794 255 255 255
-3.55493 133.91 -56.3683 255 255 255
-13.1529 -36.8999 35.6656 255 255 255
-0.0228704 93.872 -58.1348 255 255 255
-1.71323 135.679 -59.6027 255 255 255
-1.07623 99.3479 -52.9593 255 255 255
7.79557 30.3458 -76.2811 255 255 255
-12.1752 -61.5043 42.212 255 255 255
-13.7891 -13.8095 37.13 255 255 255
-13.7008 -13.785 36.7766 255 255 255
6.46605 82.8211 -71.7833 255 255 255
-11.2643 3.95751 26.0519 255 255 255
14.6393 58.6306 -95.9997 255 255 255
-10.1441 -46.2736 36.57 255 255 255
-10.4681 -61.8456 42.271 255 255 255
-10.5347 0.0229454 32.4759 255 255 255
15.7204 79.2423 -81.1131 255 255 255
-9.65425 -18.2491 39.691 255 255 255
-9.21024 -2.81921 35.9302 255 255 255
10.8317 103.551 -58.8554 255 255 255
13.5457 100.173 -64.6276 255 255 255
-8.74337 -12.1737 39.8949 255 255 255
18.6829 97.5131 -70.133 255 255 255
16.0066 106.456 -59.9393 255 255 255
-5.97952 -38.2316 38.0438 255 255 255
15.9746 138.433 -59.9825 255 255 255
16.6547 138.422 -61.8871 255 255 255
26.4867 87.1783 -86.2951 255 255 255
25.4957 86.0459 -83.0631 255 255 255
26.4867 87.1783 -86.2951 255 255 255
-5.72064 -6.96493 37.817 255 255 255
28.1687 82.317 -88.0792 255 255 255
22.1287 104.526 -67.4175 255 255 255
28.9222 86.2428 -85.807 255 255 255
33.9618 83.3985 -90.9542 255 255 255
27.5114 101.552 -70.3193 255 255 255
36.0132 41.7072 -91.0263 255 255 255
-3.00227 -8.40598 39.4635 255 255 255
29.0791 105.01 -70.5308 255 255 255
-2.54484 -12.3282 39.4416 255 255 255
1.98819 1.42947 25.4125 255 255 255
31.3298 100.608 -70.6891 255 255 255
-1.89393 -28.7871 42.6441 255 255 255
30.6177 113.435 -64.6388 255 255 255
40.1062 94.3305 -88.2838 255 255 255
2.38116 -43.3172 33.8511 255 255 255
44.4475 84.6007 -96.9317 255 255 255
41.3055 99.5772 -86.3986 255 255 255
45.0703 88.0433 -96.401 255 255 255
37.7058 113.936 -68.5583 255 255 255
39.8914 111.336 -72.0765 255 255 255
-93.3135 -39.4947 13.2474 255 255 255
-272.792 214.108 -318.796 255 255 255
-246.925 185.018 -280.406 255 255 255
-127.92 30.0728 -83.2891 255 255 255
-147.682 98.2593 -110.87 255 255 255
-146.652 132.5 -88.9964 255 255 255
-143.486 93.2094 -107.969 255 255 255
-143.486 93.2094 -107.969 255 255 255
-138.085 103 -88.822 255 255 255
-135.392 90.2369 -89.7623 255 255 255
-132.219 109.974 -68.6095 255 255 255
-110.45 73.1462 -48.6242 255 255 255
-88.9221 56.0206 -26.6011 255 255 255
-88.8284 82.8809 -16.3558 255 255 255
-84.4829 72.5004 -14.3275 255 255 255
-81.8406 43.5576 -40.5782 255 255 255
-85.5065 96.4373 -23.5458 255 255 255
-85.5065 96.4373 -23.5458 255 255 255
-84.8828 99.443 -25.165 255 255 255
-76.7725 39.168 -47.406 255 255 255
-77.9492 59.5398 -33.2888 255 255 255
-73.9455 40.23 -48.7178 255 255 255
-81.0438 110.251 -28.2895 255 255 255
-85.0672 169.949 -86.8362 255 255 255
-64.5807 69.8274 -31.9498 255 255 255
-57.4473 63.9138 -41.1305 255 255 255
-53.2331 83.6377 -29.5674 255 255 255
-30.6514 -62.7821 43.8985 255 255 255
-29.7702 -64.3235 45.944 255 255 255
-29.316 -63.3874 44.6883 255 255 255
-29.6043 -59.0114 38.6825 255 255 255
-29.7173 -58.4623 39.9324 255 255 255
-39.0622 84.3 -37.2357 255 255 255
-27.7767 -58.4595 37.9795 255 255 255
-30.0225 -26.6644 21.9715 255 255 255
-41.884 181.23 -103.371 255 255 255
-26.2118 -58.7222 36.4116 255 255 255
-23.332 -61.1054 41.8236 255 255 255
-20.7911 -61.7834 42.1677 255 255 255
-11.8246 41.5194 -88.3236 255 255 255
-19.0175 -67.782 50.7502 255 255 255
-20.2333 -26.7619 39.3273 255 255 255
-14.0503 92.5109 -47.9733 255 255 255
-18.1836 -28.4437 40.4228 255 255 255
-10.9009 115.707 -50.308 255 255 255
-16.4937 -26.0884 39.5174 255 255 255
-5.84616 91.909 -53.6868 255 255 255
-5.84616 91.909 -53.6868 255 255 255
-15.9742 -20.8945 38.701 255 255 255
-0.91825 95.5114 -57.9504 255 255 255
-12.3195 2.78504 27.423 255 255 255
-10.7344 -22.1093 39.8846 255 255 255
-8.22443 3.89661 26.5427 255 255 255
7.33788 130.416 -53.6355 255 255 255
-7.20602 -3.57835 35.762 255 255 255
-7.39288 -3.62136 36.1853 255 255 255
27.9904 72.1384 -100.65 255 255 255
27.8204 70.1419 -98.1312 255 255 255
29.3404 71.2776 -95.182 255 255 255
-6.06241 -29.1774 43.198 255 255 255
-4.64069 -3.74236 36.7801 255 255 255
40.2267 74.4854 -105.886 255 255 255
-2.9726 -32.4001 41.8773 255 255 255
-1.93217 -7.82924 38.8746 255 255 255
1.63265 -22.4138 40.3293 255 255 255
-92.6849 -38.2031 13.6096 255 255 255
-187.212 126.598 -173.909 255 255 255
-201.18 137.431 -200.982 255 255 255
-183.189 121.417 -179.287 255 255 255
-114.959 85.0674 -50.3644 255 255 255
-115.198 64.0735 -67.6523 255 255 255
-150.339 197.463 -130.43 255 255 255
-91.8384 38.602 -42.6033 255 255 255
-115.157 138.757 -67.1681 255 255 255
-84.6205 25.4512 -53.2396 255 255 255
-105.545 138.255 -66.5784 255 255 255
-86.0769 93.8555 -22.0298 255 255 255
-87.4928 162.116 -82.0399 255 255 255
-59.1573 34.6547 -63.5726 255 255 255
-33.4156 -61.6602 42.3365 255 255 255
-32.4894 -58.2018 38.0721 255 255 255
-29.2766 -26.0935 24.7994 255 255 255
-25.222 -65.8375 46.4468 255 255 255
-22.1994 -60.2618 40.5342 255 255 255
-22.1514 -59.1138 39.2802 255 255 255
-20.195 -23.2309 36.4136 255 255 255
-5.94292 80.7897 -63.3897 255 255 255
3.76638 24.2206 -67.8133 255 255 255
4.5628 29.0728 -74.2412 255 255 255
3.58373 22.1246 -64.1401 255 255 255
-1.90386 113.884 -49.5109 255 255 255
-0.062439 101.083 -53.0323 255 255 255
-10.6091 -60.8356 41.2618 255 255 255
2.02309 132.408 -55.2443 255 255 255
-10.184 -20.2355 37.919 255 255 255
21.1454 79.108 -87.1339 255 255 255
-7.57506 -36.1015 39.5368 255 255 255
24.6139 154.06 -71.5652 255 255 255
-4.21371 -31.6302 42.8081 255 255 255
24.1218 123.112 -61.8783 255 255 255
-1.49758 -38.9414 36.8054 255 255 255
27.4706 118.356 -60.9271 255 255 255
35.2506 142.762 -75.6753 255 255 255
-174.072 113.367 -151.123 255 255 255
-167.852 151.512 -113.139 255 255 255
-172.948 138.037 -140.651 255 255 255
-153.439 139.567 -95.8586 255 255 255
-130.47 75.667 -92.1502 255 255 255
-128.169 60.7938 -97.9002 255 255 255
-129.549 66.1529 -98.953 255 255 255
-102.54 51.356 -50.4361 255 255 255
-101.347 72.6053 -28.1026 255 255 255
-127.86 147.51 -87.1792 255 255 255
-87.548 38.0409 -39.3704 255 255 255
-84.3762 39.1639 -43.3757 255 255 255
-57.4654 -44.0375 19.4108 255 255 255
-81.7138 34.3183 -50.7416 255 255 255
-112.394 173.238 -94.4202 255 255 255
-46.9196 -58.9975 40.1244 255 255 255
-41.3713 -52.4399 29.15 255 255 255
-61.6632 78.5094 -23.9111 255 255 255
-72.3481 175.036 -94.1818 255 255 255
-27.989 -36.2489 23.9013 255 255 255
-26.1837 -64.4793 45.5329 255 255 255
-25.5959 -66.0995 46.017 255 255 255
-25.5959 -66.0995 46.017 255 255 255
-25.4963 -64.2496 48.1413 255 255 255
-27.4418 -22.146 34.8216 255 255 255
-28.5789 117.272 -46.6551 255 255 255
-21.9214 -64.1761 45.6429 255 255 255
-18.5137 -31.6876 39.6876 255 255 255
-12.9283 133.863 -54.2411 255 255 255
-3.63562 77.014 -68.7567 255 255 255
-15.4915 -26.5316 40.3356 255 255 255
-15.1383 -27.4375 40.8544 255 255 255
-11.607 -16.4258 37.7441 255 255 255
-11.4962 -8.20098 37.2685 255 255 255
6.00456 130.141 -56.4055 255 255 255
13.2535 87.9346 -70.0058 255 255 255
9.16063 120.581 -56.3252 255 255 255
19.3935 81.1325 -81.5677 255 255 255
11.3753 115.706 -54.4594 255 255 255
25.0661 88.0879 -81.7728 255 255 255
22.403 112.663 -55.4136 255 255 255
43.1095 116.782 -77.1691 255 255 255
-158.163 137.786 -109.133 255 255 255
-126.58 108.678 -55.8246 255 255 255
-120.443 63.2979 -78.7466 255 255 255
-107.747 39.9945 -67.8687 255 255 255
-70.311 39.3148 -58.3178 255 255 255
-32.6276 90.5789 -37.6537 255 255 255
-23.1995 -60.1617 40.5844 255 255 255
-14.8578 94.7678 -48.165 255 255 255
-13.2535 124.617 -51.9266 255 255 255
-17.8838 -20.7538 36.9464 255 255 255
-16.8327 -1.29009 27.9862 255 255 255
6.10564 104.91 -52.8131 255 255 255
-9.09217 -27.3675 40.9721 255 255 255
16.761 115.866 -54.1853 255 255 255
27.4605 84.6519 -86.0036 255 255 255
-5.27901 -9.30521 39.5801 255 255 255
41.9354 79.9255 -98.5552 255 255 255
-108.521 146.291 -61.5379 255 255 255
-108.521 146.291 -61.5379 255 255 255
-78.9772 75.0623 -16.4531 255 255 255
-56.7288 80.4085 -30.035 255 255 255
-32.0552 -62.3007 42.5554 255 255 255
-26.3235 -35.2677 25.092 255 255 255
-19.5744 -63.6557 44.576 255 255 255
-9.58646 -46.152 36.3784 255 255 255
-7.11961 -15.7173 39.9786 255 255 255
29.1987 111.657 -65.4594 255 255 255
30.3125 114.288 -58.0449 255 255 255
-34.8078 -61.3194 42.3298 255 255 255
-54.2939 101.735 -25.2015 255 255 255
-32.7281 -61.1247 40.8825 255 255 255
-32.7281 -61.1247 40.8825 255 255 255
-18.6916 -62.5375 43.6264 255 255 255
-16.3269 -61.393 42.3653 255 255 255
-5.00803 106.002 -41.5292 255 255 255
-22.202 -61.5547 42.4492 255 255 255
23.2298 108.442 -61.7442 255 255 255
-25.9824 88.6967 -47.5509 255 255 255
-12.8802 69.9396 -67.3985 255 255 255
-50.7607 97.5881 -28.0547 255 255 255
-12.2969 92.7843 -51.8603 255 255 255
-6.22734 -29.3552 43.0819 255 255 255
-38.278 93.8074 -24.0334 255 255 255
-154.243 221.459 -154.321 255 255 255
-9.04473 191.48 -117.885 255 255 255
-149.991 204.777 -135.328 255 255 255
-15.8909 186.532 -113.939 255 255 255
-3.34072 162.384 -78.9582 255 255 255
-88.3571 168.255 -87.6365 255 255 255
-52.5654 173.261 -98.0949 255 255 255
-52.6158 173.445 -98.4251 255 255 255
-154.833 184.814 -119.527 255 255 255
-89.3189 154.783 -77.5724 255 255 255
-149.564 181.898 -117.402 255 255 255
-165.424 185.463 -123.74 255 255 255
-106.976 140.086 -62.5084 255 255 255
-105.712 140.738 -66.0733 255 255 255
-108.531 133.436 -68.0569 255 255 255
-54.0584 115.545 -40.0502 255 255 255
-81.2956 107.603 -28.3556 255 255 255
-122.637 137.831 -80.8246 255 255 255
-84.7126 94.6941 -22.3103 255 255 255
22.9053 104.927 -66.7162 255 255 255
-22.2724 93.038 -42.902 255 255 255
22.3308 103.646 -66.5015 255 255 255
-16.5651 94.2262 -46.9483 255 255 255
-7.16151 96.2752 -52.6907 255 255 255
0.861983 96.7716 -58.3967 255 255 255
39.1534 105.786 -79.2758 255 255 255
-6.75755 93.8399 -53.9522 255 255 255
25.2999 99.9357 -71.3196 255 255 255
-12.816 90.6163 -52.8225 255 255 255
17.7397 97.9335 -69.9099 255 255 255
-65.1685 77.572 -24.4734 255 255 255
19.3209 95.6283 -72.1025 255 255 255
-13.3839 87.5685 -53.581 255 255 255
-74.5189 73.426 -21.5141 255 255 255
-14.7851 85.8341 -52.449 255 255 255
38.6775 98.3695 -83.5138 255 255 255
38.6775 98.3695 -83.5138 255 255 255
56.2864 99.6485 -93.5987 255 255 255
23.4748 92.2358 -76.5298 255 255 255
14.1186 89.3163 -71.3774 255 255 255
27.0003 89.9108 -80.0372 255 255 255
-20.3132 80.3616 -54.9843 255 255 255
-20.3132 80.3616 -54.9843 255 255 255
37.589 89.5277 -87.8271 255 255 255
-42.4652 72.9398 -44.3503 255 255 255
5.75224 82.3448 -71.5539 255 255 255
22.6691 85.1515 -80.2291 255 255 255
-47.5317 71.7358 -44.0592 255 255 255
3.42524 79.6638 -71.0519 255 255 255
2.35625 79.2801 -70.3814 255 255 255
-15.3473 75.3827 -60.1855 255 255 255
-20.869 75.1128 -59.9703 255 255 255
-32.4953 71.8938 -55.3516 255 255 255
-14.9412 73.7472 -62.1164 255 255 255
54.9292 86.8095 -102.851 255 255 255
29.8742 81.6227 -88.4448 255 255 255
17.5783 78.3004 -80.5702 255 255 255
2.35794 76.1314 -75.5463 255 255 255
61.3554 84.5016 -108.076 255 255 255
-35.3975 67.4817 -56.9483 255 255 255
57.7243 82.8619 -106.678 255 255 255
-57.9693 61.2286 -42.5071 255 255 255
-14.2266 68.9807 -67.6595 255 255 255
-14.2266 68.9807 -67.6595 255 255 255
-9.64175 67.7549 -69.6779 255 255 255
-30.6858 64.56 -61.6982 255 255 255
-42.858 61.7347 -53.2936 255 255 255
-42.8408 61.523 -52.6551 255 255 255
-52.8471 59.6655 -47.2749 255 255 255
19.7688 71.6245 -88.9669 255 255 255
4.73294 69.309 -81.0871 255 255 255
-24.8376 64.4755 -65.5133 255 255 255
4.37809 68.9062 -81.483 255 255 255
-30.0513 62.9677 -64.0016 255 255 255
3.43359 68.3671 -82.5334 255 255 255
-13.0593 65.1737 -72.4496 255 255 255
44.0807 74.0395 -104.25 255 255 255
5.82497 66.7421 -80.9211 255 255 255
-42.0382 59.237 -55.4213 255 255 255
-57.1529 56.751 -47.1573 255 255 255
-27.7194 61.1641 -64.5688 255 255 255
-14.1184 63.5674 -73.1386 255 255 255
58.2429 74.4666 -113.323 255 255 255
-14.8669 62.2897 -70.7137 255 255 255
-14.6394 62.6095 -71.891 255 255 255
-28.1685 59.4181 -65.8299 255 255 255
-42.4843 57.2505 -58.5161 255 255 255
-20.6341 60.2421 -71.2309 255 255 255
-68.697 51.6978 -42.6019 255 255 255
-10.021 61.2342 -78.0954 255 255 255
-23.9347 58.5449 -68.7147 255 255 255
-24.2959 57.9371 -66.4484 255 255 255
-19.8784 58.5753 -71.1191 255 255 255
-69.8037 50.4483 -43.1017 255 255 255
-69.8037 50.4483 -43.1017 255 255 255
-30.0389 56.7409 -67.0637 255 255 255
-32.5917 55.8894 -65.4438 255 255 255
-25.6873 56.8628 -70.0584 255 255 255
-28.0382 56.3216 -68.8633 255 255 255
-3.16989 60.2249 -83.744 255 255 255
-53.5938 52.1426 -54.2547 255 255 255
-69.2953 49.3506 -44.6295 255 255 255
-23.948 56.5053 -71.7614 255 255 255
16.8901 61.9752 -94.1675 255 255 255
-47.2003 52.8564 -59.0789 255 255 255
-68.122 48.8962 -45.9953 255 255 255
-48.2203 51.7284 -58.6712 255 255 255
-16.7927 53.2097 -70.65 255 255 255
-1.97727 54.9121 -87.7547 255 255 255
-35.8788 49.2035 -66.9989 255 255 255
-82.6129 42.6617 -40.3357 255 255 255
-82.2632 42.6525 -40.8348 255 255 255
14.5754 55.5458 -97.4796 255 255 255
-11.5679 52.1083 -84.0293 255 255 255
13.8756 53.916 -99.3679 255 255 255
-63.1677 43.5417 -54.322 255 255 255
-79.6086 40.4576 -44.2195 255 255 255
-77.3134 40.8713 -46.3033 255 255 255
-76.6279 40.8772 -46.4358 255 255 255
-83.9136 39.8567 -42.4613 255 255 255
-33.1848 46.1914 -73.9086 255 255 255
-83.4619 38.8407 -42.6003 255 255 255
-45.0225 31.6441 -25.8241 255 255 255
-6.31535 44.4638 -93.3398 255 255 255
-27.3983 41.8897 -81.9668 255 255 255
-27.636 41.3894 -79.4075 255 255 255
-10.7102 42.8908 -90.6395 255 255 255
-32.182 39.9779 -79.7571 255 255 255
-32.182 39.9779 -79.7571 255 255 255
18.7121 38.9264 -86.9344 255 255 255
18.2509 38.1163 -85.4471 255 255 255
19.6166 37.6068 -85.1876 255 255 255
-54.2229 34.5301 -67.1195 255 255 255
-72.6718 32.642 -56.7388 255 255 255
-65.4589 33.3402 -60.3108 255 255 255
-66.4457 33.0337 -60.314 255 255 255
-83.1746 30.474 -49.4497 255 255 255
-55.2503 33.616 -67.0637 255 255 255
-85.976 28.5971 -49.5161 255 255 255
-87.9065 28.1561 -49.3972 255 255 255
-88.6084 27.7565 -49.0904 255 255 255
4.17409 31.4566 -76.3293 255 255 255
-85.272 27.3883 -51.8219 255 255 255
-43.9809 31.2812 -77.7186 255 255 255
-82.7842 26.633 -54.1731 255 255 255
-69.0319 26.7362 -63.3559 255 255 255
-82.1453 24.9732 -55.5433 255 255 255
-48.9756 17.7004 -60.1181 255 255 255
-16.5085 14.2032 -54.9923 255 255 255
-19.4564 10.5684 -49.89 255 255 255
-31.3536 10.014 -50.6579 255 255 255
-34.1708 9.58205 -49.6274 255 255 255
-11.0055 1.98145 29.3214 255 255 255
-19.2944 4.62756 -0.256759 255 255 255
-15.7925 3.78424 6.20214 255 255 255
-17.2629 2.94015 7.64964 255 255 255
-22.7899 6.3389 -42.6404 255 255 255
-17.8381 1.90234 9.18926 255 255 255
-19.3146 1.4163 9.36883 255 255 255
-26.152 5.43183 -42.6733 255 255 255
-14.3195 -0.241084 29.4193 255 255 255
-21.6594 1.70217 3.71691 255 255 255
-20.3328 0.798846 11.1223 255 255 255
-24.177 1.10072 4.49057 255 255 255
-20.4807 0.595558 10.2514 255 255 255
-19.5239 0.527757 11.1915 255 255 255
-20.9936 0.474573 10.8582 255 255 255
-20.9674 0.486219 10.7479 255 255 255
-17.378 -0.904915 26.9591 255 255 255
-17.892 -1.37119 26.8268 255 255 255
-52.3506 3.17361 -41.2932 255 255 255
-20.6275 -0.768804 12.5923 255 255 255
-20.9913 -1.10143 13.0836 255 255 255
-26.8446 -1.12939 7.35722 255 255 255
-21.0167 -1.63908 13.8923 255 255 255
-27.7746 -1.56038 7.96755 255 255 255
-27.3928 -1.85857 8.23889 255 255 255
-27.3928 -1.85857 8.23889 255 255 255
-25.342 -1.9008 8.37525 255 255 255
-22.298 -2.72517 15.6174 255 255 255
-23.1981 -2.80665 15.1957 255 255 255
-14.2618 -3.91828 32.6303 255 255 255
-24.1971 -0.317783 -35.6878 255 255 255
-24.039 -0.270678 -36.5744 255 255 255
-25.7865 -2.80615 9.04614 255 255 255
-23.5619 -3.2057 15.5702 255 255 255
-12.1683 -4.80855 34.6326 255 255 255
-28.9222 -3.72857 11.1437 255 255 255
-23.9057 -4.47191 17.2575 255 255 255
-24.2238 -4.49286 17.3585 255 255 255
-63.8794 -3.71261 -32.4114 255 255 255
-24.906 -5.7159 18.7816 255 255 255
-14.5301 -6.87816 34.2134 255 255 255
-42.1783 -5.00571 -30.5145 255 255 255
-4.65597 -7.27642 38.7705 255 255 255
-58.3155 249.232 -166.106 255 255 255
-115.59 231.525 -152.804 255 255 255
-130.57 228.142 -148.723 255 255 255
-125.275 225.323 -146.119 255 255 255
-125.275 225.323 -146.119 255 255 255
-130.16 226.428 -147.784 255 255 255
-124.412 224.121 -146.256 255 255 255
-31.2999 226.384 -153.794 255 255 255
-36.0873 223.307 -151.372 255 255 255
-113.454 214.769 -140.079 255 255 255
-108.843 213.56 -140.158 255 255 255
-116.809 211.534 -137.332 255 255 255
-138.263 221.599 -156.185 255 255 255
-145.516 220.899 -156.232 255 255 255
-48.1363 182.286 -104.536 255 255 255
-27.7572 185.243 -110.381 255 255 255
-103.421 164.148 -79.2537 255 255 255
-65.3492 174.791 -96.032 255 255 255
-66.8004 174.565 -95.9573 255 255 255
-28.2635 182.863 -109.218 255 255 255
-54.0805 176.096 -98.8888 255 255 255
-58.6825 175.24 -97.87 255 255 255
-58.6825 175.24 -97.87 255 255 255
-144.111 201.763 -133.623 255 255 255
-35.5054 179.115 -104.388 255 255 255
-103.422 162.241 -78.1465 255 255 255
-91.1525 166.887 -85.6209 255 255 255
-31.8497 179.304 -105.994 255 255 255
-47.0946 176.356 -101.441 255 255 255
-54.4843 173.795 -97.8863 255 255 255
-150.967 196.556 -128.823 255 255 255
-151.6 194.755 -128.194 255 255 255
-88.8366 163.983 -84.8726 255 255 255
-71.7826 167.045 -90.5233 255 255 255
-57.0133 168.368 -94.5315 255 255 255
-90.2552 159.915 -80.8783 255 255 255
-73.6107 163.962 -88.1917 255 255 255
-70.2857 164.418 -89.309 255 255 255
9.97198 150.458 -70.0461 255 255 255
-31.3955 171.65 -102.387 255 255 255
24.4988 149.29 -69.4458 255 255 255
24.4212 149.008 -68.918 255 255 255
-147.029 187.334 -121.997 255 255 255
-3.39467 145.597 -63.7072 255 255 255
-151.417 186.248 -120.857 255 255 255
-150.045 184.103 -119.446 255 255 255
-156.796 182.408 -116.822 255 255 255
-152.935 180.496 -115.977 255 255 255
-154.508 180.371 -115.898 255 255 255
-69.088 158.585 -86.4073 255 255 255
-16.1355 132.095 -53.0929 255 255 255
3.06754 130.319 -51.7471 255 255 255
-110.077 137.823 -62.9475 255 255 255
-83.1875 115.749 -30.7383 255 255 255
-106.397 135.893 -67.605 255 255 255
-111.303 133.235 -66.2267 255 255 255
-54.5469 114.733 -39.0714 255 255 255
24.2794 125.488 -62.8697 255 255 255
-192.888 176.968 -147.495 255 255 255
-110.262 130.292 -69.5091 255 255 255
-191.48 175.72 -146.3 255 255 255
-191.181 175.23 -145.818 255 255 255
-128.921 122.652 -71.938 255 255 255
-84.4375 93.0279 -21.8758 255 255 255
19.8826 110.797 -58.9175 255 255 255
12.9441 109.247 -56.1014 255 255 255
17.5218 104.32 -63.0391 255 255 255
-91.4329 92.0445 -35.0552 255 255 255
-27.7815 89.5679 -41.7243 255 255 255
-7.87206 92.3901 -54.5374 255 255 255
-8.23036 88.8739 -56.9531 255 255 255
-66.3512 75.2031 -24.32 255 255 255
-66.3512 75.2031 -24.32 255 255 255
-90.3238 69.9886 -12.058 255 255 255
39.5217 98.882 -83.4679 255 255 255
-3.64598 87.5173 -60.9775 255 255 255
-0.348246 88.7072 -64.4409 255 255 255
28.9119 94.2445 -79.601 255 255 255
-1.20922 86.6371 -63.1229 255 255 255
-9.26196 84.4532 -59.3889 255 255 255
-22.3088 81.1579 -52.7347 255 255 255
-22.3086 81.1574 -52.7247 255 255 255
-60.0804 72.3625 -31.1743 255 255 255
-63.8432 71.5189 -29.4468 255 255 255
17.5312 89.318 -75.3542 255 255 255
30.9727 92.067 -83.2678 255 255 255
-59.5523 71.6025 -33.0043 255 255 255
-43.6852 74.7248 -41.5203 255 255 255
23.4695 88.4355 -78.4092 255 255 255
-44.0212 74.2638 -41.5505 255 255 255
22.171 88.3371 -78.6885 255 255 255
25.9106 89.0431 -80.6376 255 255 255
-20.444 79.2207 -55.0988 255 255 255
-173.902 117.663 -149.459 255 255 255
18.358 86.1134 -76.6521 255 255 255
-44.4598 73.2325 -42.4514 255 255 255
-44.4221 73.338 -42.6561 255 255 255
-60.333 69.4923 -33.8245 255 255 255
-60.333 69.4923 -33.8245 255 255 255
5.41793 83.0422 -72.4203 255 255 255
33.2551 88.2701 -87.0995 255 255 255
2.47155 80.9797 -67.6627 255 255 255
-18.5209 77.062 -57.2824 255 255 255
-47.0102 71.3757 -42.1436 255 255 255
4.69408 81.7474 -70.5309 255 255 255
6.50066 81.695 -72.0091 255 255 255
-13.3055 77.1148 -61.0213 255 255 255
-37.1949 72.3432 -48.3921 255 255 255
-22.9016 74.8157 -57.9757 255 255 255
-51.3291 68.9254 -41.9249 255 255 255
-14.9087 74.9525 -62.8612 255 255 255
52.7669 88.1035 -100.677 255 255 255
22.7387 81.3389 -85.9472 255 255 255
-13.8335 71.5431 -66.4679 255 255 255
-52.9142 63.9864 -44.6953 255 255 255
18.2185 75.8295 -85.4373 255 255 255
18.0645 74.0349 -86.2162 255 255 255
33.2031 76.9008 -96.6493 255 255 255
22.9579 74.6153 -90.2034 255 255 255
-183.184 85.8805 -159.703 255 255 255
38.889 69.4681 -107.222 255 255 255
62.5198 72.7464 -119.467 255 255 255
1.8647 61.1227 -81.9047 255 255 255
39.4997 67.5343 -106.096 255 255 255
9.50168 61.7275 -90.867 255 255 255
-3.90954 59.3224 -82.3574 255 255 255
49.32 66.9321 -114.514 255 255 255
-80.8651 46.6284 -38.1666 255 255 255
-86.5056 45.5807 -34.6222 255 255 255
-25.0307 52.8895 -69.6258 255 255 255
-8.47096 54.098 -84.1372 255 255 255
-61.6785 46.2513 -52.4298 255 255 255
-77.1783 42.9176 -43.2378 255 255 255
-77.2627 43.1532 -44.161 255 255 255
-29.687 49.6696 -72.9847 255 255 255
-78.902 42.4472 -42.9859 255 255 255
-79.225 42.3117 -43.8253 255 255 255
-83.1683 41.3124 -41.5484 255 255 255
-83.1683 41.3124 -41.5484 255 255 255
-10.0732 50.064 -86.0149 255 255 255
-10.076 50.0671 -86.0136 255 255 255
-56.7075 43.7 -58.1343 255 255 255
-61.305 40.0735 -57.3842 255 255 255
-81.5037 35.6492 -44.7654 255 255 255
-5.76809 44.6852 -93.2636 255 255 255
-35.0383 39.2402 -76.4281 255 255 255
-35.0282 39.4471 -77.3376 255 255 255
-87.4703 32.2162 -46.6325 255 255 255
-53.0831 33.7836 -68.0402 255 255 255
-53.0789 33.8472 -68.3272 255 255 255
11.5329 35.465 -81.7362 255 255 255
-89.6587 27.4619 -48.1683 255 255 255
-87.3872 25.9946 -51.2157 255 255 255
-83.2254 26.4086 -54.192 255 255 255
-89.0301 24.8423 -50.135 255 255 255
16.241 26.8228 -70.2576 255 255 255
-82.664 24.7591 -55.9278 255 255 255
13.6472 26.3732 -69.8779 255 255 255
10.6911 25.2026 -67.6912 255 255 255
-72.6208 21.3372 -63.5844 255 255 255
-77.7376 17.7303 -60.7275 255 255 255
-9.07917 5.85013 22.9084 255 255 255
-9.07941 5.87436 22.8791 255 255 255
-10.0548 14.154 -55.068 255 255 255
-15.1069 14.1515 -55.9529 255 255 255
-12.1964 12.9327 -53.7674 255 255 255
-12.7019 3.96968 24.4014 255 255 255
-17.0059 2.45755 20.5047 255 255 255
-12.052 1.50945 29.2626 255 255 255
-17.1427 3.54108 6.71694 255 255 255
-37.0881 8.63159 -48.6793 255 255 255
-17.9612 2.6947 7.77998 255 255 255
-17.9166 2.7151 7.61066 255 255 255
-18.5692 2.00391 8.79185 255 255 255
-70.5382 5.98866 -44.8302 255 255 255
-18.7024 1.65236 9.32105 255 255 255
-15.9297 0.119461 27.2833 255 255 255
-11.2978 -0.322296 31.3195 255 255 255
-75.791 4.86135 -45.1593 255 255 255
-77.2585 4.22637 -43.2521 255 255 255
-19.8784 -0.0315465 11.5154 255 255 255
-18.0803 -2.26612 27.4173 255 255 255
-9.20114 -3.37388 35.2814 255 255 255
-86.6844 -0.877267 -36.4879 255 255 255
-22.364 -3.43624 16.0146 255 255 255
-25.8997 -3.16474 9.93898 255 255 255
-14.0302 -5.65234 33.869 255 255 255
-37.3159 222.959 -149.464 255 255 255
-42.4456 220.942 -148.706 255 255 255
-121.456 213.248 -138.123 255 255 255
-15.1067 193.839 -117.758 255 255 255
-61.6002 178.032 -99.4261 255 255 255
-95.961 166.206 -82.2122 255 255 255
-95.961 166.206 -82.2122 255 255 255
-2.05535 162.624 -79.5877 255 255 255
24.4233 152.728 -65.2913 255 255 255
-64.6291 173.569 -95.8676 255 255 255
-67.7065 172.965 -95.037 255 255 255
-89.5122 167.037 -85.746 255 255 255
-44.2058 177.065 -102.107 255 255 255
-90.1913 166.966 -86.0622 255 255 255
-79.5057 169.178 -89.9585 255 255 255
-103.475 160.873 -77.2185 255 255 255
-88.263 166.572 -86.1157 255 255 255
-40.1712 176.192 -102.949 255 255 255
-53.642 172.305 -97.3842 255 255 255
-101.191 159.729 -77.3326 255 255 255
-84.2607 165.388 -86.9974 255 255 255
-107.31 158.811 -76.4777 255 255 255
-69.9927 166.699 -90.4041 255 255 255
-43.7547 171.566 -98.4123 255 255 255
12.5959 152.066 -70.3679 255 255 255
-78.8325 164.456 -87.5289 255 255 255
-104.828 156.87 -75.2721 255 255 255
-81.7784 163.462 -86.1152 255 255 255
-114.255 182.13 -114.706 255 255 255
-97.9392 156.835 -77.2769 255 255 255
-103.888 155.292 -75.1254 255 255 255
-79.2322 161.728 -85.7824 255 255 255
-7.09341 144.188 -61.9211 255 255 255
-70.9853 162.121 -87.7257 255 255 255
-72.4383 161.608 -87.4269 255 255 255
-72.4383 161.608 -87.4269 255 255 255
25.4543 148.775 -70.319 255 255 255
-85.8327 157.938 -82.4725 255 255 255
-84.2209 158.239 -82.9095 255 255 255
-67.2516 161.422 -88.4055 255 255 255
-65.4154 161.106 -88.3161 255 255 255
-69.789 159.955 -86.9066 255 255 255
4.37234 145.162 -66.3691 255 255 255
-90.2062 130.172 -41.1068 255 255 255
-81.7006 156.255 -82.0126 255 255 255
-61.5332 160.372 -89.0548 255 255 255
-11.1949 140.092 -59.0036 255 255 255
-67.4707 158.027 -85.7667 255 255 255
-68.2121 156.376 -84.9625 255 255 255
-105.75 142.218 -67.0936 255 255 255
-17.0756 130.441 -52.2221 255 255 255
-110.603 135.735 -61.0839 255 255 255
-77.1205 117.404 -33.0424 255 255 255
-14.9608 127.487 -51.6561 255 255 255
-105.5 138.14 -66.5426 255 255 255
-103.938 137.414 -66.0092 255 255 255
-109.371 135.154 -64.2781 255 255 255
-82.0111 111.764 -29.005 255 255 255
25.5291 131.988 -65.97 255 255 255
-12.9667 119.575 -48.736 255 255 255
-124.735 140.115 -81.6591 255 255 255
-124.925 138.788 -81.0896 255 255 255
-124.918 138.826 -81.0276 255 255 255
-58.3352 110.303 -35.9582 255 255 255
-10.7414 112.917 -49.4077 255 255 255
-91.073 99.9155 -25.9965 255 255 255
1.9313 111.101 -49.6975 255 255 255
-127.374 126.041 -74.3101 255 255 255
-129.088 125.987 -74.3611 255 255 255
-131.662 119.533 -70.1965 255 255 255
42.2248 116.616 -69.5798 255 255 255
-48.0448 94.9505 -33.4926 255 255 255
18.9068 101.64 -67.8022 255 255 255
16.8654 100.402 -65.8522 255 255 255
26.0528 102.285 -71.1607 255 255 255
-60.51 79.5424 -22.9016 255 255 255
25.4023 99.8202 -72.4273 255 255 255
-49.8838 81.4565 -31.2744 255 255 255
-73.5365 75.2023 -16.807 255 255 255
-71.1038 76.1753 -19.1852 255 255 255
30.7829 99.2512 -76.7935 255 255 255
7.83602 94.2067 -65.701 255 255 255
-87.5492 71.0252 -12.9782 255 255 255
-4.8821 89.2524 -57.1677 255 255 255
56.2077 102.071 -92.2905 255 255 255
-27.0769 81.9936 -48.4113 255 255 255
-27.0664 82.0884 -48.4964 255 255 255
58.1597 104.105 -102.951 255 255 255
-19.5604 82.9286 -52.9426 255 255 255
-44.3105 76.9781 -39.3517 255 255 255
-0.311636 85.354 -64.3043 255 255 255
72.7119 99.8132 -105.127 255 255 255
59.1958 92.3412 -101.906 255 255 255
1.84855 80.6235 -71.6203 255 255 255
-73.7507 64.6514 -28.8575 255 255 255
-0.541078 78.3939 -70.5842 255 255 255
69.6199 91.1182 -109.721 255 255 255
-74.82 63.079 -29.3801 255 255 255
-74.82 63.079 -29.3801 255 255 255
18.2612 79.9047 -81.7588 255 255 255
32.2704 78.8231 -91.47 255 255 255
49.6404 81.0128 -105.642 255 255 255
-41.6688 62.5747 -53.4385 255 255 255
15.6851 70.1235 -83.7148 255 255 255
-7.92626 67.0754 -74.4515 255 255 255
-55.5742 58.2291 -48.0225 255 255 255
-55.5896 58.084 -47.5083 255 255 255
-55.5896 58.084 -47.5083 255 255 255
-24.8493 59.8693 -68.2288 255 255 255
39.3174 67.6815 -112.58 255 255 255
-62.7584 46.3958 -50.9799 255 255 255
-62.665 46.356 -50.6695 255 255 255
-69.7969 41.6341 -49.9489 255 255 255
-77.143 39.4753 -46.8185 255 255 255
-3.57515 46.188 -92.2872 255 255 255
-39.9824 40.565 -71.432 255 255 255
-69.4536 35.8603 -55.2973 255 255 255
-83.1644 33.1971 -48.0104 255 255 255
-61.6826 33.9914 -61.9163 255 255 255
-62.3339 31.8713 -63.6391 255 255 255
-65.7445 30.0239 -62.8439 255 255 255
-82.2662 27.8128 -53.2875 255 255 255
19.2 27.7243 -72.9896 255 255 255
14.5126 24.4652 -68.7753 255 255 255
-81.8559 22.2284 -58.3035 255 255 255
-83.3276 19.5905 -58.8094 255 255 255
-80.3197 19.0199 -61.4052 255 255 255
-20.7133 13.5221 -53.6303 255 255 255
-73.0856 9.96339 -50.6315 255 255 255
-99.1431 8.51795 -48.5945 255 255 255
-10.2372 0.895378 30.798 255 255 255
-19.1685 6.45568 -44.7486 255 255 255
-13.7865 0.409154 29.026 255 255 255
-22.1143 2.45627 2.15077 255 255 255
-23.3168 5.77144 -44.246 255 255 255
-90.801 4.08082 -43.6818 255 255 255
-75.9604 4.30003 -43.4986 255 255 255
-90.839 3.55297 -42.5613 255 255 255
-26.1791 2.2339 -38.9634 255 255 255
-25.0866 -0.557329 -34.6204 255 255 255
-72.8306 -1.56978 -36.0777 255 255 255
-27.0377 -4.86507 12.6032 255 255 255
-45.0043 -3.27166 -33.2576 255 255 255
-13.6638 -6.00401 34.1087 255 255 255
-41.6245 -4.60844 -30.0367 255 255 255
-23.9171 -6.23834 19.6576 255 255 255
-24.2986 -6.31603 19.7511 255 255 255
21.8578 157.07 -63.121 255 255 255
22.6885 156.614 -63.3148 255 255 255
3.07294 145.462 -65.9467 255 255 255
-3.71724 139.053 -60.5026 255 255 255
-71.2206 114.148 -33.2089 255 255 255
-116.027 136.058 -70.3861 255 255 255
6.30312 123.647 -56.6927 255 255 255
-110.118 131.622 -68.2133 255 255 255
-109.99 131.406 -67.9511 255 255 255
-109.281 131.066 -68.4231 255 255 255
-122.187 138.426 -81.0981 255 255 255
-123.639 136.317 -79.911 255 255 255
-128.923 130.479 -76.7529 255 255 255
-127.196 127.357 -74.7763 255 255 255
-129.349 124.894 -73.5945 255 255 255
-129.707 122.417 -72.4502 255 255 255
-129.707 122.417 -72.4502 255 255 255
-125.459 120.788 -71.7382 255 255 255
35.1735 112.277 -69.4386 255 255 255
-83.9138 82.2395 -15.5108 255 255 255
30.6454 105.416 -71.2824 255 255 255
-7.34052 96.3147 -53.137 255 255 255
-34.854 86.731 -38.2708 255 255 255
71.3544 110.506 -95.8101 255 255 255
53.0077 106.538 -87.2239 255 255 255
34.2234 100.854 -78.1278 255 255 255
4.3771 93.2169 -61.7519 255 255 255
6.07956 93.086 -63.4403 255 255 255
-91.0944 69.5954 -9.75017 255 255 255
-44.9569 79.5956 -36.5641 255 255 255
-100.332 74.8661 -25.8804 255 255 255
72.8717 101.925 -103.339 255 255 255
24.1197 88.7729 -78.651 255 255 255
26.7553 88.9218 -80.9081 255 255 255
-37.6156 75.3743 -45.3838 255 255 255
-69.2045 66.4691 -31.4776 255 255 255
-14.472 75.3509 -61.9908 255 255 255
2.30431 77.8761 -71.5257 255 255 255
7.21035 71.0871 -83.0296 255 255 255
-23.8589 60.5756 -67.6021 255 255 255
62.3103 74.2847 -117.162 255 255 255
14.3126 64.7923 -89.1805 255 255 255
-2.29846 60.9186 -82.1384 255 255 255
-9.2609 57.3006 -82.0941 255 255 255
-82.7201 41.691 -40.2901 255 255 255
-64.3674 42.2557 -53.7513 255 255 255
-70.866 40.8031 -51.313 255 255 255
-140.169 54.1465 -113.505 255 255 255
-88.3345 37.1852 -41.0262 255 255 255
-85.8987 37.4386 -42.7003 255 255 255
5.39702 48.9398 -99.0626 255 255 255
-86.657 36.1134 -42.7595 255 255 255
-24.9448 41.8193 -81.243 255 255 255
22.8797 43.078 -93.0217 255 255 255
17.8452 40.9734 -87.7903 255 255 255
-67.4285 33.3838 -58.4215 255 255 255
-55.2091 34.4446 -66.3891 255 255 255
4.03978 30.6365 -76.1824 255 255 255
-95.014 26.0521 -52.9913 255 255 255
6.74451 23.8171 -68.1609 255 255 255
-73.9508 21.9181 -64.857 255 255 255
-11.2501 13.6859 -54.2296 255 255 255
-14.3226 13.0695 -53.5732 255 255 255
-16.0484 10.8477 -50.9195 255 255 255
-18.2082 0.793263 23.6221 255 255 255
-28.8933 6.2169 -45.3766 255 255 255
-18.8421 0.621388 22.0706 255 255 255
-23.7493 1.77328 3.18786 255 255 255
-32.2013 3.27393 -41.303 255 255 255
-12.1352 -2.01266 32.6349 255 255 255
-19.7564 -2.54808 25.2057 255 255 255
-36.614 0.826812 -37.7046 255 255 255
-20.473 -3.65434 25.0678 255 255 255
-21.1313 -3.82408 22.9967 255 255 255
-40.4954 -3.71707 -31.5539 255 255 255
-30.3678 -5.47156 14.0182 255 255 255
-61.618 233.23 -162.208 255 255 255
-109.272 136.631 -63.921 255 255 255
-116.088 138.503 -68.3741 255 255 255
-106.58 133.003 -67.8622 255 255 255
-152.671 142.922 -99.1925 255 255 255
51.1114 115.119 -76.8931 255 255 255
-10.0186 92.0755 -52.5617 255 255 255
-82.192 72.7664 -13.8341 255 255 255
-51.0737 78.3063 -33.0465 255 255 255
54.9633 100.736 -91.9696 255 255 255
72.1393 104.455 -102.22 255 255 255
-44.927 76.3799 -39.9091 255 255 255
58.318 98.7844 -96.7422 255 255 255
-4.4204 81.2303 -65.7475 255 255 255
32.0647 84.672 -87.5555 255 255 255
55.1593 83.4805 -105.608 255 255 255
55.4744 79.44 -106.68 255 255 255
44.7873 75.7124 -100.319 255 255 255
44.3738 71.0788 -104.56 255 255 255
-32.3668 54.0477 -67.1448 255 255 255
10.5393 58.6041 -93.0929 255 255 255
-63.0695 47.3262 -50.8749 255 255 255
-53.5214 43.869 -58.8171 255 255 255
-71.2512 39.9394 -51.4114 255 255 255
-8.65294 44.8049 -90.9199 255 255 255
-85.5649 23.9355 -51.6571 255 255 255
-90.1721 22.2824 -49.499 255 255 255
11.9088 22.148 -65.5707 255 255 255
-85.4953 19.9095 -57.1753 255 255 255
-14.641 10.6294 -51.1058 255 255 255
-100.07 8.24493 -48.6774 255 255 255
-18.0174 0.98802 23.0786 255 255 255
-10.2567 0.0898177 31.4957 255 255 255
-33.4211 5.84928 -43.0273 255 255 255
-25.9559 4.04905 -42.1068 255 255 255
-18.1086 -1.00069 25.8352 255 255 255
-52.1939 0.750901 -38.7362 255 255 255
-25.4365 -2.10795 8.55448 255 255 255
-26.4245 -0.148653 -36.5797 255 255 255
-28.621 -2.38051 8.76039 255 255 255
-41.6941 -1.42855 -34.4146 255 255 255
-21.0059 -4.33131 24.408 255 255 255
31.9004 256.093 -188.685 255 255 255
-79.8946 223.275 -151.851 255 255 255
-43.1814 82.8739 -36.5625 255 255 255
-56.0702 77.8398 -30.4712 255 255 255
-87.6143 68.732 -14.1959 255 255 255
-7.47495 83.2396 -58.368 255 255 255
5.17048 81.9362 -72.5389 255 255 255
-68.1293 52.6292 -43.8613 255 255 255
32.4883 67.875 -102.147 255 255 255
-2.62598 59.6227 -83.602 255 255 255
-2.21353 48.2932 -93.1199 255 255 255
-85.7264 26.9493 -51.9972 255 255 255
-85.6002 26.8244 -51.2729 255 255 255
15.2092 24.6531 -66.3795 255 255 255
-19.6713 0.745887 10.5712 255 255 255
-39.0681 -0.607756 -36.5882 255 255 255
-38.1944 178.055 -104.215 255 255 255
-38.2083 178.133 -104.349 255 255 255
-81.1304 165.907 -87.7603 255 255 255
-54.8741 170.9 -96.5124 255 255 255
-73.8143 166.791 -90.2202 255 255 255
-73.8143 166.791 -90.2202 255 255 255
-41.5996 170.318 -99.5212 255 255 255
24.4445 99.4338 -71.5407 255 255 255
-182.364 116.477 -171.93 255 255 255
48.8033 67.1012 -112.41 255 255 255
44.5795 66.4332 -111.914 255 255 255
-6.89331 50.3761 -86.6895 255 255 255
-79.329 38.2371 -45.7202 255 255 255
0.615784 48.1196 -94.1276 255 255 255
-16.0709 32.2899 -79.9522 255 255 255
-82.755 25.9303 -55.1581 255 255 255
-20.4138 1.12981 9.63066 255 255 255
-21.0559 -1.69249 14.0156 255 255 255
-67.6666 165.275 -91.3434 255 255 255
-9.93577 125.332 -52.8743 255 255 255
26.6469 129.555 -66.2965 255 255 255
-8.04956 57.9607 -80.295 255 255 255
-22.6352 51.8933 -72.8731 255 255 255
-81.7475 33.1586 -47.7953 255 255 255
30.6012 25.8891 -68.8029 255 255 255
-128.753 223.005 -148.774 255 255 255
-62.829 169.521 -93.8339 255 255 255
58.1738 78.2537 -109.987 255 255 255
43.4228 74.0625 -98.8361 255 255 255
4.9534 58.8567 -86.2151 255 255 255
-27.8431 51.6354 -71.6351 255 255 255
-10.4437 47.1145 -84.0742 255 255 255
-88.8303 72.1778 -12.2607 255 255 255
-18.7246 50.5792 -78.515 255 255 255
13.7496 73.8218 -84.1263 255 255 255
-39.6468 39.0448 -75.5481 255 255 255
60.034 58.2982 -13.6058 255 255 255
60.0054 58.0154 -14.4554 255 255 255
59.9037 57.9649 -14.3055 255 255 255
57.9845 57.0968 -19.5739 255 255 255
54.4178 41.6466 15.9345 255 255 255
58.3466 55.9341 -20.0519 255 255 255
29.1006 84.8708 -86.7653 255 255 255
64.6186 85.5214 -109.332 255 255 255
69.8068 85.6773 -111.856 255 255 255
58.7763 84.169 -106.74 255 255 255
30.8143 81.7767 -91.512 255 255 255
23.5991 79.179 -84.9199 255 255 255
1.44033 77.0049 -71.2745 255 255 255
-7.41392 76.3505 -66.4303 255 255 255
2.72283 77.098 -72.1852 255 255 255
57.5273 49.476 -25.7511 255 255 255
57.5273 49.476 -25.7511 255 255 255
58.2837 49.2559 -25.5533 255 255 255
15.1501 78.1469 -82.2287 255 255 255
70.2127 82.2051 -116.008 255 255 255
57.0584 79.0817 -107.534 255 255 255
71.2693 80.0204 -116.366 255 255 255
71.2693 80.0204 -116.366 255 255 255
58.724 30.1841 16.5198 255 255 255
24.7197 75.1257 -89.4698 255 255 255
55.377 31.8256 10.4637 255 255 255
56.1059 31.3956 11.4264 255 255 255
58.6905 28.7093 16.7086 255 255 255
59.23 27.7514 18.4697 255 255 255
17.7404 73.0141 -85.6108 255 255 255
56.9375 30.0686 12.3111 255 255 255
21.1254 72.9809 -88.6723 255 255 255
22.8729 73.0221 -89.6485 255 255 255
59.9591 26.0678 19.9554 255 255 255
62.2623 75.5078 -116.789 255 255 255
57.9395 27.4755 15.2084 255 255 255
60.4843 25.3287 18.5816 255 255 255
56.6131 43.5713 -32.1533 255 255 255
37.7151 71.4849 -101.202 255 255 255
36.2584 71.6007 -101.238 255 255 255
60.2407 24.0657 17.9574 255 255 255
59.0097 41.0614 -29.5129 255 255 255
56.4961 43.1117 -34.6567 255 255 255
12.0835 68.0883 -85.2845 255 255 255
57.2003 42.525 -34.5679 255 255 255
-1.90944 67.255 -76.9856 255 255 255
58.6613 24.9997 13.4389 255 255 255
-1.09988 67.2408 -78.1587 255 255 255
56.7215 41.4693 -34.732 255 255 255
56.4872 25.9644 8.79032 255 255 255
59.0118 23.5079 14.1745 255 255 255
41.7014 68.8335 -108.975 255 255 255
54.962 26.8851 5.35556 255 255 255
-2.80187 65.356 -77.4602 255 255 255
60.2674 37.2418 -27.5986 255 255 255
58.1113 23.5334 12.1562 255 255 255
60.8968 20.7483 17.9346 255 255 255
55.4899 25.5057 5.98322 255 255 255
58.3623 22.816 12.2708 255 255 255
56.8957 23.7621 9.63124 255 255 255
55.036 25.6384 4.54676 255 255 255
-7.89135 63.4686 -75.304 255 255 255
18.2481 64.6887 -92.5781 255 255 255
55.1041 25.025 5.66901 255 255 255
63.719 17.3957 23.3936 255 255 255
64.0036 31.6866 -21.0339 255 255 255
58.9841 21.3907 11.7068 255 255 255
16.8926 63.3278 -93.0467 255 255 255
-9.60239 62.004 -75.217 255 255 255
-4.76451 61.8972 -78.199 255 255 255
37.1887 63.3478 -107.254 255 255 255
56.3093 22.4975 4.15796 255 255 255
55.7208 22.2942 4.45202 255 255 255
60.2355 18.4081 14.2073 255 255 255
55.3175 22.2336 3.9491 255 255 255
58.8008 19.5537 9.68221 255 255 255
56.9287 21.295 4.28296 255 255 255
64.2459 14.4976 21.9007 255 255 255
54.6993 22.2582 1.96891 255 255 255
56.0349 20.9946 4.88316 255 255 255
10.0857 59.9319 -91.1183 255 255 255
10.0857 59.9319 -91.1183 255 255 255
56.0564 20.9501 3.64179 255 255 255
56.9991 19.9632 5.74263 255 255 255
56.4255 20.3821 3.98604 255 255 255
59.311 31.088 -34.0396 255 255 255
65.0784 25.6134 -22.0588 255 255 255
61.6822 15.3583 12.764 255 255 255
63.1884 26.9611 -27.2514 255 255 255
58.7268 16.7416 8.82703 255 255 255
59.0486 16.4941 8.89157 255 255 255
60.3247 15.1852 10.5046 255 255 255
60.1159 14.8601 11.1057 255 255 255
54.6536 19.5459 -1.63178 255 255 255
59.6403 15.504 8.45594 255 255 255
61.4732 13.1803 13.8468 255 255 255
55.4149 18.3046 -0.341257 255 255 255
9.43443 54.9266 -96.4399 255 255 255
56.5378 30.4998 -44.5936 255 255 255
55.6081 17.064 -1.0839 255 255 255
59.3658 27.382 -39.0246 255 255 255
53.8355 18.4177 -4.91219 255 255 255
53.8355 18.4177 -4.91219 255 255 255
59.57 13.1838 8.55756 255 255 255
55.7325 16.5778 -1.00703 255 255 255
63.9704 22.8733 -29.1178 255 255 255
55.4558 16.4183 -2.40265 255 255 255
58.8941 13.6221 5.19586 255 255 255
58.9777 13.6441 5.0516 255 255 255
59.8172 12.4185 7.30681 255 255 255
59.7478 12.3977 7.34719 255 255 255
57.5965 14.1684 2.21621 255 255 255
59.7428 12.0536 7.81932 255 255 255
56.7442 13.8606 2.53784 255 255 255
58.3483 13.1344 3.29693 255 255 255
54.6866 16.0228 -4.97089 255 255 255
56.9544 27.379 -47.3147 255 255 255
56.8668 26.715 -47.0057 255 255 255
57.0652 26.3166 -45.9273 255 255 255
32.4921 44.1118 -94.5374 255 255 255
57.2498 25.3485 -47.4699 255 255 255
31.7812 42.5633 -91.6473 255 255 255
57.6189 24.737 -46.6891 255 255 255
55.7391 13.1177 -2.61186 255 255 255
58.2311 11.1656 1.63351 255 255 255
57.4484 11.4774 -0.642774 255 255 255
62.432 7.57053 10.2548 255 255 255
62.432 7.57053 10.2548 255 255 255
55.9266 12.776 -4.77652 255 255 255
-15.4102 47.4755 -80.9307 255 255 255
58.5567 9.96312 0.803081 255 255 255
58.9225 9.03551 1.46367 255 255 255
23.7291 39.0159 -87.1074 255 255 255
65.175 4.05206 14.582 255 255 255
59.0588 8.18654 2.97156 255 255 255
57.8459 8.91533 -0.49621 255 255 255
65.4093 3.20469 15.9137 255 255 255
57.6774 8.74866 -0.869663 255 255 255
58.1036 8.42376 0.0570448 255 255 255
64.4231 3.80099 13.1344 255 255 255
62.739 16.9092 -37.9439 255 255 255
59.1585 7.57548 1.18669 255 255 255
59.8 6.80032 2.63467 255 255 255
60.0069 6.20921 2.91278 255 255 255
60.1324 6.25659 2.76443 255 255 255
-23.1412 44.6926 -81.1635 255 255 255
60.7085 5.2917 4.0929 255 255 255
60.7085 5.2917 4.0929 255 255 255
61.2081 5.10048 4.53223 255 255 255
62.9039 3.4363 9.90824 255 255 255
63.739 2.95898 10.9483 255 255 255
63.739 2.95898 10.9483 255 255 255
59.3487 6.21343 0.769556 255 255 255
63.5743 2.34665 11.3667 255 255 255
63.5199 2.64147 9.89868 255 255 255
56.2817 8.11885 -6.7022 255 255 255
58.5148 6.33358 -1.49226 255 255 255
61.41 3.89641 6.14677 255 255 255
11.8351 36.1811 -83.2666 255 255 255
63.6182 2.32116 9.64025 255 255 255
55.8227 7.95861 -9.13494 255 255 255
58.7569 16.9533 -50.2687 255 255 255
60.8534 3.6216 3.13694 255 255 255
58.6555 5.16241 -2.11675 255 255 255
63.9131 1.14654 9.6174 255 255 255
59.4072 15.216 -48.664 255 255 255
21.4868 29.4484 -74.9557 255 255 255
65.126 -0.403945 11.3376 255 255 255
3.24201 34.4664 -80.8809 255 255 255
58.3531 4.40908 -3.7595 255 255 255
58.3135 4.40826 -3.68466 255 255 255
59.0071 3.66326 -3.75309 255 255 255
65.6937 -1.65374 12.7261 255 255 255
17.8862 28.0698 -73.508 255 255 255
13.956 27.874 -71.9105 255 255 255
58.6325 2.70359 -4.27785 255 255 255
62.2186 -1.14185 3.19818 255 255 255
5.4406 27.4995 -70.8607 255 255 255
27.6922 20.4783 -63.7467 255 255 255
56.4967 2.41151 -11.2627 255 255 255
56.237 2.24433 -11.616 255 255 255
56.237 2.24433 -11.616 255 255 255
3.26182 5.61727 24.8013 255 255 255
2.59733 26.484 -71.1642 255 255 255
55.6407 2.41895 -14.9568 255 255 255
63.6898 -4.04235 5.00853 255 255 255
65.2645 -4.8992 6.87902 255 255 255
65.7041 -5.70012 8.8586 255 255 255
66.5366 -6.5007 10.0987 255 255 255
64.8098 -5.52713 6.78539 255 255 255
65.0701 -5.50875 6.45078 255 255 255
61.3881 -3.16089 -1.92845 255 255 255
-5.41613 6.20355 24.1561 255 255 255
54.4401 1.23558 -18.6706 255 255 255
54.3356 1.2284 -18.5181 255 255 255
54.1137 1.21408 -18.171 255 255 255
53.8809 1.21209 -18.4131 255 255 255
55.052 0.608327 -16.6511 255 255 255
54.6027 0.435771 -17.0674 255 255 255
58.6979 -2.07295 -9.77522 255 255 255
64.6265 -6.69669 5.51356 255 255 255
-7.89935 5.3548 25.8981 255 255 255
58.8583 -2.90446 -8.70073 255 255 255
59.1756 -3.51257 -8.12842 255 255 255
60.16 -4.47346 -4.61528 255 255 255
60.16 -4.47346 -4.61528 255 255 255
-1.48772 21.9066 -66.4727 255 255 255
64.3525 -7.1525 3.33753 255 255 255
64.3525 -7.1525 3.33753 255 255 255
-10.0618 5.58433 23.5463 255 255 255
-10.0618 5.58433 23.5463 255 255 255
-9.61218 5.35886 24.1435 255 255 255
66.7906 -8.82757 7.50042 255 255 255
6.30539 17.6656 -59.3509 255 255 255
56.9053 -2.95053 -14.0949 255 255 255
57.3567 -2.98642 -14.0839 255 255 255
-0.939671 1.56994 29.706 255 255 255
7.62676 -1.33337 32.8742 255 255 255
64.2704 -8.63401 1.83936 255 255 255
-1.45976 1.02344 30.2979 255 255 255
57.2481 -3.96237 -14.4508 255 255 255
66.8735 -10.4282 8.09622 255 255 255
57.2961 -4.26695 -14.3143 255 255 255
57.7542 -4.68081 -13.5714 255 255 255
67.1197 -11.3204 6.34095 255 255 255
58.3021 -5.93559 -12.2339 255 255 255
58.3021 -5.93559 -12.2339 255 255 255
66.7895 -11.3974 5.81668 255 255 255
63.8048 -9.80861 -0.163823 255 255 255
65.6392 -11.0836 4.29335 255 255 255
-14.0822 3.47396 24.9886 255 255 255
66.261 -11.7474 4.43604 255 255 255
-5.25415 15.4896 -57.3276 255 255 255
5.28158 -3.76477 35.677 255 255 255
63.2013 -10.7149 -4.71868 255 255 255
61.4196 -9.78006 -8.37884 255 255 255
66.567 -13.3452 4.97925 255 255 255
66.6511 -13.3401 4.35442 255 255 255
61.7123 -9.83827 -10.2978 255 255 255
57.9541 -8.1099 -15.3939 255 255 255
64.3704 -12.3802 -0.756537 255 255 255
57.5413 -8.37189 -17.2796 255 255 255
64.9929 -12.7585 -1.6805 255 255 255
57.378 -8.41697 -17.6637 255 255 255
2.40203 -4.68605 37.0785 255 255 255
56.7733 -8.21691 -20.282 255 255 255
